# .PCD v0.7 - Point Cloud Data file format
VERSION 0.7
FIELDS x y z
SIZE 4 4 4
TYPE F F F
COUNT 1 1 1
WIDTH 1500
HEIGHT 1
VIEWPOINT 0 0 0 1 0 0 0
POINTS 1500
DATA ascii
-76.209999 -80.550003 -3.9100001
-76.139999 -80.550003 -3.78
-75.220001 -80.489998 -3.49
-74.269997 -80.43 -3.1700001
-75.760002 -80.540001 -3.3499999
-75.580002 -80.540001 -3.1900001
-75.629997 -80.550003 -3.0799999
-73.879997 -80.43 -2.54
-74.120003 -80.449997 -2.46
-74.339996 -80.480003 -2.3800001
-74.220001 -80.480003 -2.21
-74.220001 -80.480003 -2.0699999
-75.709999 -80.339996 -5.3600001
-75.510002 -80.330002 -5.23
-75.610001 -80.349998 -5.1199999
-75.190002 -80.32 -4.9699998
-75.32 -80.330002 -4.8600001
-75.809998 -80.379997 -4.79
-75.779999 -80.379997 -4.6700001
-75.839996 -80.389999 -4.5599999
-75.889999 -80.400002 -4.4499998
-75.959999 -80.419998 -4.3499999
-75.949997 -80.419998 -4.23
-76.139999 -80.440002 -4.1500001
-75.870003 -80.43 -3.98
-76.129997 -80.449997 -3.9100001
-75.269997 -80.389999 -3.6400001
-74.540001 -80.349998 -3.3800001
-74.440002 -80.349998 -3.23
-74.470001 -80.360001 -3.0999999
-74.419998 -80.360001 -2.96
-74.040001 -80.339996 -2.74
-73.870003 -80.330002 -2.5599999
-74.07 -80.360001 -2.47
-74.169998 -80.370003 -2.3599999
-74.300003 -80.389999 -2.26
-75.790001 -80.25 -5.3600001
-75.68 -80.25 -5.2399998
-75.629997 -80.25 -5.1199999
-75.410004 -80.239998 -4.9899998
-75.519997 -80.260002 -4.8800001
-75.239998 -80.239998 -4.7399998
-75.059998 -80.230003 -4.5900002
-75.709999 -80.290001 -4.5500002
-75.760002 -80.300003 -4.4400001
-75.769997 -80.309998 -4.3299999
-75.260002 -80.269997 -4.1399999
-75.489998 -80.300003 -4.0500002
-75.419998 -80.300003 -3.9200001
-75.959999 -80.349998 -3.8900001
-75.779999 -80.339996 -3.74
-75.139999 -80.300003 -3.5
-74.519997 -80.260002 -3.25
-74.5 -80.260002 -3.1199999
-74.449997 -80.269997 -2.98
-74.190002 -80.260002 -2.79
-73.830002 -80.239998 -2.5699999
-74.010002 -80.260002 -2.47
-74.199997 -80.279999 -2.3800001
-75.720001 -80.160004 -5.2600002
-75.699997 -80.160004 -5.1399999
-75.489998 -80.150002 -5.0100002
-75.550003 -80.160004 -4.9000001
-75.449997 -80.160004 -4.77
-75.459999 -80.169998 -4.6599998
-75 -80.139999 -4.4899998
-75.470001 -80.18 -4.4200001
-75.620003 -80.199997 -4.3299999
-75.5 -80.199997 -4.1900001
-75.279999 -80.190002 -4.04
-75.349998 -80.199997 -3.9300001
-75.830002 -80.239998 -3.8900001
-75.360001 -80.209999 -3.6900001
-75.279999 -80.209999 -3.5599999
-74.519997 -80.160004 -3.28
-74.559998 -80.169998 -3.1600001
-74.559998 -80.18 -3.03
-74.239998 -80.169998 -2.8299999
-73.790001 -80.139999 -2.5899999
-74.010002 -80.160004 -2.51
-74.209999 -80.190002 -2.4200001
-75.639999 -80.050003 -5.3699999
-75.720001 -80.059998 -5.2600002
-75.660004 -80.059998 -5.1399999
-75.589996 -80.059998 -5.02
-75.580002 -80.07 -4.9099998
-75.480003 -80.07 -4.7800002
-75.480003 -80.080002 -4.6599998
-75.410004 -80.080002 -4.54
-75.360001 -80.080002 -4.4099998
-75.379997 -80.089996 -4.3000002
-75.220001 -80.080002 -4.1599998
-75.290001 -80.089996 -4.0500002
-75.199997 -80.089996 -3.9100001
-75.209999 -80.099998 -3.8
-75.169998 -80.099998 -3.6700001
-75.099998 -80.099998 -3.53
-74.959999 -80.099998 -3.3800001
-74.599998 -80.080002 -3.1800001
-74.529999 -80.080002 -3.04
-74.269997 -80.07 -2.8499999
-74.099998 -80.07 -2.54
-74.220001 -80.089996 -2.4400001
-74.220001 -80.099998 -2.3099999
-75.550003 -79.949997 -5.2600002
-75.629997 -79.970001 -5.1500001
-75.580002 -79.970001 -5.0300002
-75.650002 -79.980003 -4.9200001
-75.519997 -79.980003 -4.8000002
-75.449997 -79.980003 -4.6700001
-74.900002 -79.940002 -4.4899998
-74.919998 -79.949997 -4.3699999
-74.57 -79.93 -4.21
-73.919998 -79.879997 -3.99
-75.160004 -79.989998 -4.0500002
-75.290001 -80 -3.95
-75.18 -80 -3.8099999
-75 -79.989998 -3.6600001
-75.050003 -80 -3.54
-74.720001 -79.989998 -3.3599999
-74.610001 -79.989998 -3.21
-74.470001 -79.980003 -3.05
-74.309998 -79.980003 -2.8800001
-75.599998 -79.860001 -5.2600002
-75.599998 -79.870003 -5.0300002
-75.230003 -79.860001 -4.77
-74.860001 -79.839996 -4.4899998
-74.889999 -79.849998 -4.3800001
-74.629997 -79.839996 -4.2199998
-74.93 -79.870003 -4.02
-74.5 -79.849998 -3.8299999
-75.129997 -79.900002 -3.8099999
-75.059998 -79.900002 -3.6800001
-75.010002 -79.910004 -3.55
-74.959999 -79.910004 -3.4100001
-74.510002 -79.879997 -3.2
-74.309998 -79.870003 -3.03
-74.290001 -79.879997 -2.8900001
-74.730003 -79.739998 -4.48
-74.360001 -79.739998 -3.8099999
-74.620003 -79.769997 -3.73
-75.059998 -79.809998 -3.6800001
-75.110001 -79.82 -3.5699999
-75.050003 -79.82 -3.4400001
-75.010002 -79.830002 -3.3099999
-74.410004 -79.790001 -3.0599999
-74.209999 -79.779999 -2.8900001
-74.330002 -79.650002 -3.6900001
-75.160004 -79.720001 -3.71
-75.050003 -79.720001 -3.5699999
-74.970001 -79.720001 -3.4400001
-75.019997 -79.730003 -3.3299999
-74.209999 -79.68 -3.03
-74.160004 -79.68 -2.8900001
-74.769997 -79.599998 -3.6500001
-74.709999 -79.599998 -3.51
-74.870003 -79.620003 -3.4200001
-74.849998 -79.620003 -3.3
-74.25 -79.589996 -3.05
-74.199997 -79.589996 -2.9100001
-75.010002 -79.540001 -3.46
-74.879997 -79.540001 -3.3099999
-75.029999 -79.550003 -3.22
-74.989998 -79.449997 -3.3399999
-84.099998 -102.43 -7.5300002
-83.599998 -102.49 -7.3299999
-82.720001 -102.59 -7.1100001
-82.199997 -102.66 -6.8800001
-81.029999 -102.8 -6.6199999
-83.709999 -102.3 -7.3099999
-82.889999 -102.4 -7.0999999
-82.309998 -102.46 -6.8699999
-81.400002 -102.57 -6.6199999
-83.690002 -102.13 -7.3200002
-82.959999 -102.21 -7.0999999
-82.339996 -102.28 -6.8800001
-81.510002 -102.37 -6.6300001
-83.790001 -101.96 -7.3000002
-83.019997 -102.04 -7.0900002
-82.389999 -102.1 -6.8699999
-81.589996 -102.19 -6.6199999
-83.900002 -101.78 -7.3000002
-83.18 -101.86 -7.0900002
-82.599998 -101.92 -6.8699999
-81.860001 -101.99 -6.6300001
-83.889999 -101.63 -7.2800002
-83.330002 -101.68 -7.0700002
-82.68 -101.74 -6.8499999
-82.089996 -101.8 -6.6199999
-83.309998 -101.53 -7.0599999
-82.730003 -101.58 -6.8400002
-82.139999 -101.64 -6.6199999
-83.419998 -101.36 -7.04
-82.779999 -101.42 -6.8200002
-82.279999 -101.46 -6.5900002
-83.43 -101.21 -7.0300002
-82.779999 -101.27 -6.8099999
-83.480003 -101.06 -7.0100002
-82.900002 -101.1 -6.8000002
-83.480003 -100.91 -7.0100002
-82.870003 -100.96 -6.79
-83.440002 -100.77 -7
-82.849998 -100.81 -6.7800002
-83.410004 -100.63 -6.98
-82.849998 -100.66 -6.7600002
-83.43 -100.48 -6.96
-82.93 -100.52 -6.75
-83.43 -100.35 -6.9299998
-82.910004 -100.38 -6.7199998
-83.309998 -100.22 -6.9200001
-82.830002 -100.25 -6.71
-83.199997 -100.09 -6.8899999
-81.660004 -100.17 -6.6300001
-83.209999 -99.959999 -6.8899999
-81.730003 -100.03 -6.6300001
-83.050003 -99.839996 -6.8600001
-81.379997 -99.910004 -6.5900002
-82.910004 -99.720001 -6.8499999
-81.510002 -99.769997 -6.5999999
-82.919998 -99.599998 -6.8400002
-81.480003 -99.650002 -6.5799999
-82.709999 -99.489998 -6.8299999
-81.120003 -99.529999 -6.5700002
-82.529999 -99.370003 -6.8000002
-81.099998 -99.410004 -6.54
-82.459999 -99.260002 -6.79
-81.019997 -99.290001 -6.5300002
-82.339996 -99.150002 -6.77
-80.809998 -99.190002 -6.5100002
-83.050003 -99.029999 -6.9699998
-82.199997 -99.050003 -6.75
-82.93 -98.93 -6.96
-81.949997 -98.949997 -6.73
-82.809998 -98.830002 -6.9400001
-82.029999 -98.849998 -6.7199998
-82.690002 -98.739998 -6.9200001
-81.769997 -98.75 -6.6900001
-82.599998 -98.650002 -6.9000001
-81.559998 -98.660004 -6.6700001
-82.540001 -98.57 -6.8899999
-81.540001 -98.580002 -6.6500001
-82.330002 -98.489998 -6.8600001
-81.400002 -98.5 -6.6300001
-82.239998 -98.410004 -6.8400002
-81.190002 -98.419998 -6.5999999
-82.110001 -98.339996 -6.8099999
-81.169998 -98.339996 -6.5799999
-82 -98.269997 -6.8099999
-80.989998 -98.269997 -6.5700002
-81.910004 -98.199997 -6.7800002
-80.910004 -98.199997 -6.54
-81.75 -98.129997 -6.7600002
-81.760002 -98.059998 -6.7600002
-81.690002 -98 -6.75
-81.669998 -97.93 -6.7399998
-81.610001 -97.870003 -6.7399998
-81.589996 -97.82 -6.7199998
-81.470001 -97.760002 -6.71
-81.339996 -97.709999 -6.6999998
-81.419998 -97.660004 -6.6999998
-81.360001 -97.610001 -6.6799998
-81.959999 -97.57 -6.9000001
-81.269997 -97.559998 -6.6799998
-81.940002 -97.529999 -6.9000001
-81.330002 -97.519997 -6.6799998
-81.910004 -97.489998 -6.8899999
-81.110001 -97.480003 -6.6700001
-81.839996 -97.449997 -6.8800001
-81.099998 -97.440002 -6.6599998
-81.839996 -97.400002 -6.8800001
-81.110001 -97.389999 -6.6500001
-81.839996 -97.360001 -6.8800001
-81.040001 -97.349998 -6.6599998
-81.790001 -97.32 -6.8699999
-81.160004 -97.32 -6.6500001
-81.760002 -97.279999 -6.8699999
-81.129997 -97.279999 -6.6500001
-81.730003 -97.25 -6.8699999
-81.150002 -97.239998 -6.6500001
-81.709999 -97.209999 -6.8699999
-81.18 -97.199997 -6.6500001
-81.68 -97.18 -6.8499999
-81.150002 -97.169998 -6.6399999
-81.68 -97.139999 -6.8499999
-81.18 -97.139999 -6.6399999
-81.639999 -97.110001 -6.8499999
-81.190002 -97.110001 -6.6399999
-81.620003 -97.080002 -6.8400002
-81.120003 -97.080002 -6.6300001
-81.629997 -97.059998 -6.8400002
-81.110001 -97.050003 -6.6199999
-81.599998 -97.029999 -6.8299999
-81.129997 -97.029999 -6.6199999
-78.720001 -96.989998 -6.3099999
-81.559998 -97.010002 -6.8299999
-81.07 -97 -6.6199999
-81.57 -96.989998 -6.8299999
-81.519997 -96.970001 -6.8299999
-81.489998 -96.940002 -6.8200002
-81.489998 -96.919998 -6.8200002
-81.459999 -96.900002 -6.8099999
-81.419998 -96.879997 -6.8099999
-81.360001 -96.860001 -6.8099999
-81.410004 -96.839996 -6.8000002
-81.18 -96.720001 -6.7800002
-81.169998 -96.709999 -6.7800002
-81.139999 -96.699997 -6.77
-81.139999 -96.68 -6.77
-81.110001 -96.669998 -6.79
-81.129997 -96.660004 -6.79
-81.160004 -96.650002 -6.8099999
-81.18 -96.639999 -6.8200002
-81.18 -96.620003 -6.8200002
-81.25 -96.620003 -6.8299999
-79.779999 -96.589996 -6.5799999
-81.279999 -96.610001 -6.8299999
-79.779999 -96.580002 -6.5799999
-81.279999 -96.599998 -6.8499999
-79.809998 -96.57 -6.5900002
-81.349998 -96.589996 -6.8400002
-79.82 -96.57 -6.5900002
-81.370003 -96.589996 -6.8299999
-79.849998 -96.559998 -6.5799999
-81.360001 -96.589996 -6.8200002
-79.830002 -96.559998 -6.5599999
-81.330002 -96.580002 -6.8000002
-79.830002 -96.559998 -6.5500002
-81.269997 -96.580002 -6.79
-79.75 -96.550003 -6.5300002
-81.230003 -96.580002 -6.7600002
-79.57 -96.550003 -6.4899998
-81.800003 -96.589996 -6.9299998
-81.18 -96.580002 -6.73
-79.279999 -96.550003 -6.4499998
-81.75 -96.589996 -6.9099998
-81.040001 -96.580002 -6.6999998
-78.93 -96.550003 -6.4000001
-81.699997 -96.599998 -6.9000001
-80.959999 -96.589996 -6.6799998
-78.709999 -96.550003 -6.3800001
-81.599998 -96.599998 -6.8499999
-81.25 -96.599998 -6.6500001
-78.440002 -96.550003 -6.3200002
-81.470001 -96.599998 -6.8400002
-79.910004 -96.580002 -6.5900002
-81.269997 -96.599998 -6.8099999
-79.860001 -96.580002 -6.5500002
-81.889999 -96.610001 -7
-81.199997 -96.599998 -6.8000002
-79.669998 -96.580002 -6.54
-81.830002 -96.610001 -6.98
-81.089996 -96.599998 -6.7600002
-79.309998 -96.580002 -6.4899998
-81.800003 -96.610001 -6.9699998
-81.010002 -96.599998 -6.75
-78.970001 -96.57 -6.4699998
-81.760002 -96.620003 -6.9400001
-80.940002 -96.610001 -6.7199998
-78.919998 -96.580002 -6.4400001
-81.660004 -96.620003 -6.9200001
-81.25 -96.620003 -6.7199998
-78.620003 -96.580002 -6.4099998
-81.599998 -96.620003 -6.9099998
-81.269997 -96.620003 -6.71
-78.449997 -96.580002 -6.3899999
-81.489998 -96.620003 -6.8899999
-79.910004 -96.599998 -6.6399999
-81.440002 -96.620003 -6.8800001
-79.889999 -96.599998 -6.6300001
-81.910004 -96.620003 -7.0700002
-81.360001 -96.620003 -6.8699999
-79.82 -96.589996 -6.6100001
-81.910004 -96.620003 -7.0700002
-81.309998 -96.610001 -6.8600001
-79.769997 -96.589996 -6.6100001
-81.879997 -96.620003 -7.0700002
-81.25 -96.610001 -6.8600001
-79.589996 -96.580002 -6.5999999
-81.870003 -96.610001 -7.0700002
-81.239998 -96.599998 -6.8600001
-79.5 -96.580002 -6.5999999
-81.879997 -96.610001 -7.0700002
-81.220001 -96.599998 -6.8699999
-79.489998 -96.57 -6.6100001
-81.879997 -96.599998 -7.0799999
-81.199997 -96.589996 -6.8699999
-79.5 -96.57 -6.6199999
-81.870003 -96.599998 -7.0900002
-81.190002 -96.589996 -6.8800001
-79.389999 -96.559998 -6.6199999
-81.889999 -96.589996 -7.0799999
-81.150002 -96.580002 -6.8800001
-79.449997 -96.559998 -6.6199999
-81.889999 -96.580002 -7.0999999
-81.190002 -96.580002 -6.9000001
-79.519997 -96.550003 -6.6399999
-81.860001 -96.580002 -7.1100001
-81.150002 -96.57 -6.9000001
-79.330002 -96.540001 -6.6399999
-81.900002 -96.57 -7.0999999
-81.169998 -96.57 -6.9000001
-79.529999 -96.540001 -6.6399999
-81.919998 -96.57 -7.1100001
-81.199997 -96.559998 -6.9000001
-79.669998 -96.540001 -6.6500001
-81.900002 -96.559998 -7.1100001
-81.160004 -96.550003 -6.9099998
-79.589996 -96.529999 -6.6599998
-81.910004 -96.550003 -7.1199999
-81.190002 -96.550003 -6.9099998
-79.690002 -96.529999 -6.6599998
-81.949997 -96.550003 -7.1199999
-81.290001 -96.540001 -6.9099998
-79.790001 -96.519997 -6.6700001
-81.919998 -96.540001 -7.1199999
-81.199997 -96.529999 -6.9099998
-79.669998 -96.510002 -6.6599998
-81.910004 -96.529999 -7.1199999
-81.18 -96.519997 -6.9099998
-79.699997 -96.5 -6.6700001
-81.910004 -96.510002 -7.1199999
-81.239998 -96.510002 -6.9200001
-79.730003 -96.480003 -6.6700001
-82.440002 -96.5 -7.3099999
-81.889999 -96.5 -7.1199999
-81.18 -96.489998 -6.9200001
-79.720001 -96.470001 -6.6700001
-82.459999 -96.489998 -7.3099999
-81.879997 -96.480003 -7.1199999
-81.18 -96.470001 -6.9200001
-79.660004 -96.449997 -6.6700001
-82.489998 -96.470001 -7.3200002
-81.900002 -96.470001 -7.1300001
-81.209999 -96.459999 -6.9200001
-79.620003 -96.440002 -6.6700001
-83.010002 -96.459999 -7.4899998
-82.410004 -96.449997 -7.3099999
-81.800003 -96.449997 -7.1199999
-81.129997 -96.440002 -6.9099998
-79.419998 -96.419998 -6.6599998
-83.089996 -96.449997 -7.48
-82.419998 -96.440002 -7.3000002
-81.870003 -96.43 -7.1100001
-81.120003 -96.419998 -6.9099998
-79.699997 -96.400002 -6.6599998
-83.089996 -96.43 -7.4699998
-82.470001 -96.419998 -7.29
-81.860001 -96.419998 -7.0999999
-81.18 -96.410004 -6.9000001
-79.650002 -96.389999 -6.6500001
-82.970001 -96.410004 -7.4699998
-82.360001 -96.410004 -7.2800002
-81.720001 -96.400002 -7.0900002
-81.019997 -96.389999 -6.8899999
-79.279999 -96.370003 -6.6300001
-83.459999 -96.400002 -7.6300001
-82.989998 -96.400002 -7.46
-82.300003 -96.389999 -7.2800002
-81.760002 -96.379997 -7.0799999
-81 -96.370003 -6.8800001
-79.410004 -96.349998 -6.6199999
-83.510002 -96.389999 -7.6199999
-82.970001 -96.379997 -7.4499998
-82.339996 -96.370003 -7.27
-81.720001 -96.370003 -7.0799999
-81 -96.360001 -6.8699999
-79.32 -96.339996 -6.6100001
-83.459999 -96.370003 -7.6100001
-82.879997 -96.360001 -7.4400001
-82.269997 -96.360001 -7.2600002
-81.639999 -96.349998 -7.0599999
-80.940002 -96.339996 -6.8600001
-79.080002 -96.309998 -6.5900002
-83.940002 -96.349998 -7.77
-83.379997 -96.349998 -7.5999999
-82.830002 -96.339996 -7.4299998
-82.190002 -96.339996 -7.25
-81.620003 -96.330002 -7.0599999
-80.870003 -96.32 -6.8499999
-78.980003 -96.290001 -6.5799999
-83.910004 -96.339996 -7.7600002
-83.419998 -96.330002 -7.5999999
-82.760002 -96.32 -7.4299998
-82.199997 -96.32 -7.2399998
-81.57 -96.309998 -7.0500002
-80.870003 -96.300003 -6.8400002
-78.879997 -96.269997 -6.5700002
-84.230003 -96.32 -7.9200001
-83.879997 -96.309998 -7.7600002
-83.330002 -96.309998 -7.5999999
-82.739998 -96.300003 -7.4299998
-82.110001 -96.290001 -7.2399998
-81.529999 -96.290001 -7.0500002
-80.790001 -96.279999 -6.8400002
-78.760002 -96.25 -6.5599999
-84.220001 -96.290001 -7.9200001
-83.870003 -96.290001 -7.7600002
-83.290001 -96.279999 -7.5999999
-82.709999 -96.279999 -7.4299998
-82.089996 -96.269997 -7.25
-81.5 -96.269997 -7.0500002
-80.75 -96.260002 -6.8400002
-78.809998 -96.230003 -6.5700002
-84.220001 -96.269997 -7.9200001
-83.910004 -96.269997 -7.77
-83.300003 -96.260002 -7.6100001
-82.809998 -96.260002 -7.4299998
-82.089996 -96.25 -7.25
-81.57 -96.239998 -7.0599999
-80.760002 -96.230003 -6.8499999
-79.050003 -96.209999 -6.5900002
-84.239998 -96.25 -7.9299998
-83.830002 -96.239998 -7.7800002
-83.32 -96.239998 -7.6100001
-82.650002 -96.230003 -7.4400001
-82.099998 -96.220001 -7.2600002
-81.419998 -96.220001 -7.0599999
-80.739998 -96.209999 -6.8600001
-78.760002 -96.18 -6.5900002
-84.769997 -96.230003 -8.0900002
-84.269997 -96.220001 -7.9400001
-83.860001 -96.220001 -7.79
-83.25 -96.209999 -7.6300001
-82.690002 -96.199997 -7.4499998
-82.040001 -96.199997 -7.27
-81.489998 -96.190002 -7.0799999
-80.610001 -96.18 -6.8699999
-78.940002 -96.160004 -6.6100001
-84.919998 -96.199997 -8.0900002
-84.389999 -96.199997 -7.9499998
-83.940002 -96.190002 -7.8000002
-83.349998 -96.190002 -7.6399999
-82.830002 -96.18 -7.4699998
-82.160004 -96.169998 -7.2800002
-81.639999 -96.169998 -7.0900002
-80.739998 -96.160004 -6.8800001
-79.32 -96.139999 -6.6399999
-85.349998 -96.18 -8.2299995
-84.879997 -96.18 -8.1000004
-84.389999 -96.169998 -7.9499998
-83.900002 -96.169998 -7.8000002
-83.419998 -96.160004 -7.6399999
-82.790001 -96.150002 -7.4699998
-82.18 -96.150002 -7.29
-81.580002 -96.139999 -7.0999999
-80.730003 -96.129997 -6.8899999
-79.220001 -96.110001 -6.6399999
-85.32 -96.150002 -8.2399998
-84.860001 -96.150002 -8.1000004
-84.339996 -96.139999 -7.96
-83.889999 -96.139999 -7.8099999
-83.330002 -96.129997 -7.6500001
-82.720001 -96.129997 -7.48
-82.110001 -96.120003 -7.3000002
-81.529999 -96.120003 -7.1100001
-80.629997 -96.099998 -6.9000001
-79.199997 -96.089996 -6.6500001
-85.349998 -96.129997 -8.2399998
-84.910004 -96.120003 -8.1000004
-84.360001 -96.110001 -7.96
-83.959999 -96.110001 -7.8099999
-83.370003 -96.099998 -7.6500001
-82.860001 -96.099998 -7.48
-82.150002 -96.089996 -7.3000002
-81.629997 -96.089996 -7.1100001
-80.620003 -96.07 -6.9000001
-79.540001 -96.059998 -6.6700001
-85.790001 -96.099998 -8.3699999
-85.400002 -96.099998 -8.2399998
-84.900002 -96.089996 -8.1000004
-84.419998 -96.089996 -7.96
-83.940002 -96.080002 -7.8099999
-83.419998 -96.080002 -7.6500001
-82.779999 -96.07 -7.48
-82.209999 -96.059998 -7.3000002
-81.589996 -96.059998 -7.1100001
-80.830002 -96.050003 -6.9099998
-79.43 -96.029999 -6.6700001
-85.779999 -96.07 -8.3599997
-85.360001 -96.07 -8.2299995
-84.879997 -96.059998 -8.1000004
-84.379997 -96.050003 -7.96
-83.919998 -96.050003 -7.8000002
-83.349998 -96.040001 -7.6500001
-82.790001 -96.040001 -7.48
-82.160004 -96.029999 -7.3000002
-81.57 -96.029999 -7.1100001
-80.730003 -96.019997 -6.9000001
-79.449997 -96 -6.6599998
-85.75 -96.040001 -8.3599997
-85.339996 -96.029999 -8.2299995
-84.870003 -96.029999 -8.0900002
-84.360001 -96.019997 -7.9499998
-83.919998 -96.019997 -7.8000002
-83.379997 -96.010002 -7.6399999
-82.800003 -96.010002 -7.4699998
-82.169998 -96 -7.3000002
-81.589996 -95.989998 -7.1100001
-80.779999 -95.980003 -6.9000001
-79.449997 -95.970001 -6.6599998
-85.709999 -96 -8.3500004
-85.330002 -96 -8.2200003
-84.82 -96 -8.0799999
-84.330002 -95.989998 -7.9400001
-83.849998 -95.989998 -7.79
-83.349998 -95.980003 -7.6300001
-82.690002 -95.970001 -7.46
-82.139999 -95.970001 -7.2800002
-81.489998 -95.959999 -7.0900002
-80.739998 -95.949997 -6.8899999
-79.339996 -95.93 -6.6399999
-85.889999 -95.970001 -8.4799995
-85.709999 -95.970001 -8.3400002
-85.269997 -95.970001 -8.21
-84.809998 -95.959999 -8.0799999
-84.279999 -95.959999 -7.9400001
-83.860001 -95.949997 -7.79
-83.279999 -95.949997 -7.6300001
-82.690002 -95.940002 -7.46
-82.059998 -95.93 -7.2800002
-81.459999 -95.93 -7.0900002
-80.639999 -95.919998 -6.8800001
-79.339996 -95.900002 -6.6399999
-85.690002 -95.940002 -8.3299999
-85.279999 -95.93 -8.1999998
-84.790001 -95.93 -8.0699997
-84.309998 -95.919998 -7.9299998
-83.870003 -95.919998 -7.7800002
-83.300003 -95.910004 -7.6199999
-82.699997 -95.910004 -7.4499998
-82.089996 -95.900002 -7.27
-81.449997 -95.889999 -7.0799999
-80.690002 -95.879997 -6.8699999
-79.379997 -95.870003 -6.6300001
-85.849998 -95.900002 -8.4700003
-85.629997 -95.900002 -8.3299999
-85.239998 -95.900002 -8.1999998
-84.739998 -95.889999 -8.0699997
-84.260002 -95.889999 -7.9299998
-83.790001 -95.879997 -7.77
-83.260002 -95.879997 -7.6199999
-82.629997 -95.870003 -7.4499998
-82.050003 -95.870003 -7.27
-81.379997 -95.860001 -7.0799999
-80.620003 -95.849998 -6.8699999
-79.25 -95.830002 -6.6300001
-85.809998 -95.870003 -8.4499998
-85.589996 -95.870003 -8.3199997
-85.160004 -95.870003 -8.1899996
-84.660004 -95.860001 -8.0500002
-84.199997 -95.860001 -7.9099998
-83.699997 -95.849998 -7.7600002
-83.220001 -95.849998 -7.5999999
-82.519997 -95.839996 -7.4299998
-82.010002 -95.830002 -7.25
-81.25 -95.830002 -7.0599999
-80.519997 -95.82 -6.8499999
-79.050003 -95.800003 -6.5999999
-85.75 -95.839996 -8.4499998
-85.559998 -95.839996 -8.3100004
-85.089996 -95.830002 -8.1899996
-84.620003 -95.830002 -8.0500002
-84.129997 -95.82 -7.9099998
-83.669998 -95.82 -7.75
-83.059998 -95.809998 -7.5900002
-82.519997 -95.800003 -7.4200001
-81.889999 -95.800003 -7.2399998
-81.220001 -95.790001 -7.0500002
-80.330002 -95.779999 -6.8400002
-79.010002 -95.769997 -6.5999999
-85.739998 -95.800003 -8.4300003
-85.529999 -95.800003 -8.3000002
-85.089996 -95.800003 -8.1700001
-84.599998 -95.790001 -8.04
-84.120003 -95.790001 -7.8899999
-83.650002 -95.779999 -7.7399998
-83.07 -95.779999 -7.5799999
-82.489998 -95.769997 -7.4099998
-81.889999 -95.769997 -7.23
-81.18 -95.760002 -7.04
-80.360001 -95.75 -6.8299999
-78.949997 -95.730003 -6.5799999
-85.699997 -95.769997 -8.4200001
-85.470001 -95.769997 -8.29
-85 -95.760002 -8.1599998
-84.540001 -95.760002 -8.0200005
-84.050003 -95.75 -7.8800001
-83.550003 -95.75 -7.73
-82.970001 -95.739998 -7.5700002
-82.379997 -95.739998 -7.4000001
-81.800003 -95.730003 -7.21
-81.089996 -95.720001 -7.02
-80.120003 -95.709999 -6.8000002
-78.809998 -95.699997 -6.5599999
-85.669998 -95.730003 -8.4099998
-85.440002 -95.730003 -8.2700005
-84.970001 -95.720001 -8.1499996
-84.510002 -95.720001 -8.0100002
-84.019997 -95.720001 -7.8600001
-83.519997 -95.709999 -7.71
-82.93 -95.699997 -7.5500002
-82.389999 -95.699997 -7.3800001
-81.75 -95.690002 -7.1999998
-81.029999 -95.690002 -7
-80.089996 -95.68 -6.79
-78.769997 -95.660004 -6.54
-85.620003 -95.690002 -8.4099998
-85.349998 -95.690002 -8.2700005
-84.919998 -95.68 -8.1400003
-84.419998 -95.68 -8.0100002
-83.959999 -95.68 -7.8600001
-83.400002 -95.669998 -7.71
-82.860001 -95.660004 -7.5500002
-82.260002 -95.660004 -7.3699999
-81.690002 -95.650002 -7.1900001
-80.870003 -95.639999 -7
-79.949997 -95.629997 -6.7800002
-78.459999 -95.620003 -6.52
-85.580002 -95.650002 -8.3900003
-85.260002 -95.650002 -8.2600002
-84.830002 -95.639999 -8.1300001
-84.360001 -95.639999 -7.9899998
-83.860001 -95.629997 -7.8499999
-83.32 -95.629997 -7.6999998
-82.760002 -95.620003 -7.5300002
-82.190002 -95.620003 -7.3600001
-81.519997 -95.610001 -7.1799998
-80.760002 -95.599998 -6.98
-79.730003 -95.589996 -6.7600002
-78.300003 -95.57 -6.5
-85.550003 -95.599998 -8.3800001
-85.279999 -95.599998 -8.25
-84.800003 -95.599998 -8.1199999
-84.349998 -95.589996 -7.98
-83.849998 -95.589996 -7.8400002
-83.330002 -95.580002 -7.6799998
-82.699997 -95.580002 -7.52
-82.190002 -95.57 -7.3499999
-81.489998 -95.57 -7.1599998
-80.75 -95.559998 -6.9699998
-79.739998 -95.550003 -6.75
-78.360001 -95.529999 -6.4899998
-85.510002 -95.559998 -8.3800001
-85.139999 -95.550003 -8.25
-84.75 -95.550003 -8.1199999
-84.269997 -95.550003 -7.98
-83.800003 -95.540001 -7.8400002
-83.199997 -95.540001 -7.6900001
-82.660004 -95.529999 -7.52
-82.089996 -95.519997 -7.3499999
-81.43 -95.519997 -7.1599998
-80.57 -95.510002 -6.96
-79.660004 -95.5 -6.75
-78 -95.480003 -6.48
-85.470001 -95.510002 -8.3800001
-85.120003 -95.510002 -8.25
-84.660004 -95.5 -8.1199999
-84.239998 -95.5 -7.98
-83.709999 -95.489998 -7.8299999
-83.150002 -95.489998 -7.6799998
-82.599998 -95.480003 -7.52
-82.019997 -95.480003 -7.3400002
-81.32 -95.470001 -7.1599998
-80.550003 -95.459999 -6.96
-79.519997 -95.449997 -6.7399998
-77.949997 -95.43 -6.4699998
-85.440002 -95.459999 -8.3800001
-85.110001 -95.459999 -8.25
-84.68 -95.449997 -8.1199999
-84.220001 -95.449997 -7.98
-83.690002 -95.440002 -7.8299999
-83.150002 -95.440002 -7.6799998
-82.629997 -95.43 -7.52
-82 -95.419998 -7.3400002
-81.309998 -95.419998 -7.1599998
-80.529999 -95.410004 -6.96
-79.559998 -95.400002 -6.7399998
-78.099998 -95.379997 -6.48
-85.400002 -95.410004 -8.3699999
-85.029999 -95.410004 -8.2399998
-84.620003 -95.400002 -8.1099997
-84.150002 -95.400002 -7.9699998
-83.629997 -95.389999 -7.8299999
-83.07 -95.389999 -7.6700001
-82.57 -95.379997 -7.5100002
-81.919998 -95.370003 -7.3400002
-81.260002 -95.370003 -7.1500001
-80.389999 -95.349998 -6.9499998
-79.470001 -95.339996 -6.73
-77.93 -95.32 -6.4699998
-85.339996 -95.360001 -8.3699999
-85.029999 -95.349998 -8.2399998
-84.57 -95.349998 -8.1099997
-84.150002 -95.349998 -7.9699998
-83.580002 -95.339996 -7.8299999
-83.059998 -95.330002 -7.6700001
-82.480003 -95.330002 -7.5100002
-81.93 -95.32 -7.3400002
-81.150002 -95.309998 -7.1500001
-80.419998 -95.300003 -6.9499998
-79.360001 -95.290001 -6.73
-77.959999 -95.269997 -6.4699998
-85.32 -95.309998 -8.3599997
-85.010002 -95.300003 -8.2299995
-84.559998 -95.300003 -8.1000004
-84.099998 -95.290001 -7.96
-83.580002 -95.290001 -7.8200002
-83.029999 -95.279999 -7.6700001
-82.5 -95.279999 -7.5
-81.900002 -95.269997 -7.3299999
-81.169998 -95.260002 -7.1399999
-80.379997 -95.25 -6.9400001
-79.410004 -95.239998 -6.73
-78 -95.220001 -6.4699998
-85.269997 -95.260002 -8.3599997
-84.959999 -95.25 -8.2299995
-84.5 -95.25 -8.1000004
-84.050003 -95.239998 -7.96
-83.510002 -95.239998 -7.8200002
-82.980003 -95.230003 -7.6700001
-82.440002 -95.220001 -7.5
-81.830002 -95.220001 -7.3299999
-81.080002 -95.209999 -7.1399999
-80.290001 -95.199997 -6.9400001
-79.339996 -95.190002 -6.73
-77.839996 -95.169998 -6.4699998
-85.25 -95.209999 -8.3599997
-84.940002 -95.199997 -8.2299995
-84.480003 -95.199997 -8.1000004
-84.040001 -95.190002 -7.96
-83.489998 -95.190002 -7.8200002
-82.959999 -95.18 -7.6599998
-82.410004 -95.18 -7.5
-81.779999 -95.169998 -7.3299999
-81.040001 -95.160004 -7.1399999
-80.290001 -95.150002 -6.9400001
-79.300003 -95.139999 -6.7199998
-77.959999 -95.120003 -6.4699998
-85.209999 -95.160004 -8.3599997
-84.889999 -95.150002 -8.2299995
-84.440002 -95.150002 -8.1000004
-84 -95.139999 -7.96
-83.440002 -95.139999 -7.8200002
-82.93 -95.129997 -7.6599998
-82.419998 -95.129997 -7.5
-81.75 -95.120003 -7.3299999
-81.040001 -95.110001 -7.1399999
-80.25 -95.099998 -6.9400001
-79.32 -95.089996 -6.73
-77.839996 -95.07 -6.4699998
-85.160004 -95.110001 -8.3500004
-84.860001 -95.110001 -8.2200003
-84.410004 -95.099998 -8.0900002
-83.980003 -95.099998 -7.9499998
-83.400002 -95.089996 -7.8099999
-82.900002 -95.080002 -7.6500001
-82.330002 -95.080002 -7.4899998
-81.690002 -95.07 -7.3200002
-80.93 -95.059998 -7.1300001
-80.190002 -95.050003 -6.9299998
-79.230003 -95.040001 -6.71
-77.900002 -95.019997 -6.46
-85.169998 -95.059998 -8.3500004
-84.839996 -95.059998 -8.2200003
-84.410004 -95.050003 -8.0900002
-83.949997 -95.050003 -7.96
-83.400002 -95.040001 -7.8099999
-82.860001 -95.029999 -7.6599998
-82.339996 -95.029999 -7.5
-81.690002 -95.019997 -7.3299999
-80.93 -95.010002 -7.1399999
-80.18 -95 -6.9400001
-79.260002 -94.989998 -6.73
-77.769997 -94.970001 -6.4699998
-85.099998 -95.010002 -8.3599997
-84.790001 -95 -8.2299995
-84.349998 -95 -8.1000004
-83.889999 -94.989998 -7.9699998
-83.339996 -94.989998 -7.8200002
-82.830002 -94.980003 -7.6700001
-82.269997 -94.980003 -7.5100002
-81.599998 -94.970001 -7.3400002
-80.809998 -94.959999 -7.1500001
-80.080002 -94.949997 -6.96
-79.18 -94.940002 -6.7399998
-77.830002 -94.919998 -6.4899998
-85.089996 -94.949997 -8.3599997
-84.800003 -94.949997 -8.2299995
-84.339996 -94.940002 -8.1000004
-83.910004 -94.940002 -7.9699998
-83.32 -94.93 -7.8299999
-82.839996 -94.93 -7.6700001
-82.260002 -94.919998 -7.5100002
-81.620003 -94.919998 -7.3400002
-80.809998 -94.910004 -7.1599998
-80.160004 -94.900002 -6.96
-79.220001 -94.889999 -6.75
-77.93 -94.870003 -6.5
-85.059998 -94.900002 -8.3599997
-84.800003 -94.889999 -8.2299995
-84.330002 -94.889999 -8.1000004
-83.900002 -94.889999 -7.9699998
-83.339996 -94.879997 -7.8200002
-82.870003 -94.870003 -7.6700001
-82.269997 -94.870003 -7.5100002
-81.620003 -94.860001 -7.3400002
-80.800003 -94.849998 -7.1599998
-80.139999 -94.839996 -6.96
-79.25 -94.830002 -6.75
-78 -94.82 -6.5100002
-85.059998 -94.839996 -8.3699999
-84.760002 -94.839996 -8.2399998
-84.330002 -94.830002 -8.1099997
-83.889999 -94.830002 -7.98
-83.330002 -94.82 -7.8400002
-82.830002 -94.82 -7.6900001
-82.269997 -94.809998 -7.5300002
-81.599998 -94.800003 -7.3600001
-80.790001 -94.790001 -7.1799998
-80.099998 -94.779999 -6.98
-79.239998 -94.769997 -6.77
-78.120003 -94.760002 -6.5300002
-85.019997 -94.779999 -8.3800001
-84.760002 -94.779999 -8.25
-84.309998 -94.769997 -8.1199999
-83.879997 -94.769997 -7.9899998
-83.290001 -94.760002 -7.8499999
-82.839996 -94.760002 -7.6999998
-82.260002 -94.75 -7.54
-81.589996 -94.739998 -7.3699999
-80.739998 -94.730003 -7.1900001
-80.080002 -94.720001 -6.9899998
-79.260002 -94.709999 -6.7800002
-78.129997 -94.699997 -6.5500002
-85 -94.709999 -8.3900003
-84.790001 -94.709999 -8.2600002
-84.32 -94.709999 -8.1300001
-83.879997 -94.699997 -8
-83.32 -94.699997 -7.8600001
-82.860001 -94.690002 -7.71
-82.239998 -94.690002 -7.5599999
-81.629997 -94.68 -7.3899999
-80.699997 -94.669998 -7.21
-80.089996 -94.660004 -7.02
-79.269997 -94.650002 -6.8099999
-78.209999 -94.639999 -6.5799999
-84.339996 -94.650002 -8.1300001
-83.889999 -94.639999 -8
-83.370003 -94.639999 -7.8600001
-82.940002 -94.629997 -7.71
-82.32 -94.629997 -7.5500002
-81.720001 -94.620003 -7.3899999
-80.760002 -94.610001 -7.21
-80.199997 -94.599998 -7.02
-79.410004 -94.589996 -6.8099999
-78.389999 -94.580002 -6.5799999
-83.300003 -94.57 -7.8600001
-82.760002 -94.57 -7.7199998
-82.370003 -94.559998 -7.5599999
-81.68 -94.559998 -7.3899999
-80.790001 -94.540001 -7.2199998
-80.139999 -94.540001 -7.0300002
-79.440002 -94.529999 -6.8200002
-78.379997 -94.519997 -6.5900002
-82.110001 -94.5 -7.5500002
-81.540001 -94.489998 -7.3899999
-80.699997 -94.480003 -7.21
-80.089996 -94.470001 -7.02
-79.379997 -94.470001 -6.8200002
-78.309998 -94.449997 -6.5900002
-81.730003 -94.43 -7.5500002
-81.239998 -94.419998 -7.3800001
-80.68 -94.419998 -7.21
-80.080002 -94.410004 -7.02
-79.330002 -94.400002 -6.8099999
-78.309998 -94.389999 -6.5900002
-81.089996 -94.360001 -7.3699999
-80.669998 -94.360001 -7.1900001
-80.059998 -94.349998 -7
-79.309998 -94.339996 -6.8000002
-78.330002 -94.330002 -6.5700002
-80.949997 -94.300003 -7.3499999
-80.589996 -94.300003 -7.1700001
-79.989998 -94.290001 -6.98
-79.260002 -94.279999 -6.7800002
-78.160004 -94.269997 -6.5500002
-80.82 -94.239998 -7.3299999
-80.519997 -94.239998 -7.1500001
-79.839996 -94.230003 -6.96
-79.160004 -94.220001 -6.75
-78.040001 -94.209999 -6.52
-80.720001 -94.18 -7.29
-80.349998 -94.18 -7.1100001
-79.720001 -94.169998 -6.9200001
-78.900002 -94.160004 -6.71
-77.82 -94.150002 -6.48
-80.330002 -94.120003 -7.0999999
-79.669998 -94.110001 -6.9000001
-78.889999 -94.110001 -6.6900001
-77.830002 -94.089996 -6.46
-80.260002 -94.059998 -7.0599999
-79.459999 -94.050003 -6.8600001
-78.739998 -94.050003 -6.6500001
-77.529999 -94.029999 -6.4099998
-80.419998 -93.989998 -7.21
-80.029999 -93.989998 -7.0300002
-79.18 -93.980003 -6.8299999
-78.419998 -93.970001 -6.6100001
-80.309998 -93.919998 -7.1900001
-79.809998 -93.919998 -7.0100002
-79.029999 -93.910004 -6.8000002
-78.129997 -93.900002 -6.5799999
-80.220001 -93.839996 -7.1700001
-79.709999 -93.839996 -6.98
-78.919998 -93.830002 -6.7800002
-77.980003 -93.82 -6.5500002
-80.129997 -93.760002 -7.1599998
-79.589996 -93.760002 -6.9699998
-78.760002 -93.75 -6.77
-77.860001 -93.739998 -6.5500002
-80.040001 -93.68 -7.1599998
-79.449997 -93.68 -6.9699998
-78.529999 -93.660004 -6.7600002
-77.639999 -93.650002 -6.54
-80 -93.599998 -7.1599998
-79.290001 -93.589996 -6.9699998
-78.459999 -93.580002 -6.77
-77.480003 -93.559998 -6.54
-79.919998 -93.519997 -7.1799998
-79.300003 -93.510002 -7
-78.489998 -93.5 -6.79
-77.510002 -93.480003 -6.5700002
-79.900002 -93.43 -7.1900001
-79.290001 -93.419998 -7.0100002
-78.550003 -93.410004 -6.8099999
-77.480003 -93.400002 -6.5799999
-79.870003 -93.349998 -7.23
-79.290001 -93.339996 -7.0500002
-78.580002 -93.330002 -6.8499999
-77.620003 -93.32 -6.6300001
-79.849998 -93.269997 -7.2399998
-79.339996 -93.269997 -7.0599999
-78.610001 -93.25 -6.8600001
-77.669998 -93.239998 -6.6500001
-79.830002 -93.190002 -7.2800002
-79.309998 -93.190002 -7.0999999
-78.639999 -93.18 -6.9099998
-77.699997 -93.160004 -6.6900001
-79.839996 -93.120003 -7.29
-79.419998 -93.120003 -7.1100001
-78.82 -93.110001 -6.9299998
-77.82 -93.089996 -6.71
-77.080002 -93.080002 -6.4899998
-79.510002 -93.050003 -7.1399999
-78.879997 -93.040001 -6.9499998
-78.019997 -93.019997 -6.75
-77.169998 -93.010002 -6.5300002
-79.510002 -92.980003 -7.1399999
-78.910004 -92.970001 -6.96
-78.080002 -92.959999 -6.7600002
-77.18 -92.940002 -6.54
-79.849998 -92.900002 -7.3200002
-79.480003 -92.900002 -7.1500001
-78.870003 -92.889999 -6.96
-78.089996 -92.879997 -6.7600002
-77.220001 -92.870003 -6.54
-79.839996 -92.830002 -7.3200002
-79.470001 -92.830002 -7.1500001
-78.93 -92.82 -6.9699998
-78.110001 -92.809998 -6.77
-77.239998 -92.800003 -6.5500002
-79.470001 -92.75 -7.1399999
-78.889999 -92.739998 -6.96
-78.150002 -92.739998 -6.7600002
-77.169998 -92.720001 -6.54
-79.43 -92.68 -7.1399999
-78.779999 -92.669998 -6.96
-77.989998 -92.660004 -6.7600002
-77 -92.639999 -6.54
-79.379997 -92.589996 -7.1300001
-78.68 -92.580002 -6.9400001
-77.93 -92.57 -6.75
-76.910004 -92.559998 -6.52
-79.330002 -92.5 -7.1100001
-78.620003 -92.489998 -6.9299998
-77.809998 -92.480003 -6.73
-76.809998 -92.470001 -6.5100002
-80.989998 -92.43 -7.5900002
-79.709999 -92.410004 -7.27
-79.239998 -92.410004 -7.0999999
-78.489998 -92.389999 -6.9099998
-77.639999 -92.379997 -6.71
-76.690002 -92.370003 -6.4899998
-81.230003 -92.339996 -7.5599999
-79.690002 -92.309998 -7.25
-79.160004 -92.309998 -7.0799999
-78.410004 -92.300003 -6.8899999
-77.610001 -92.279999 -6.6900001
-76.529999 -92.269997 -6.46
-82.050003 -92.25 -7.8200002
-81.629997 -92.25 -7.6799998
-80.980003 -92.239998 -7.54
-80.400002 -92.230003 -7.3899999
-79.599998 -92.209999 -7.23
-78.949997 -92.199997 -7.0500002
-78.099998 -92.190002 -6.8600001
-77.370003 -92.18 -6.6599998
-76.239998 -92.160004 -6.4299998
-82.809998 -92.169998 -8.04
-82.389999 -92.160004 -7.9200001
-82.07 -92.160004 -7.79
-81.529999 -92.150002 -7.6500001
-80.870003 -92.139999 -7.5100002
-80.25 -92.129997 -7.3600001
-79.5 -92.110001 -7.1900001
-78.779999 -92.099998 -7.02
-78 -92.089996 -6.8200002
-77.089996 -92.07 -6.6199999
-76.129997 -92.050003 -6.3899999
-82.470001 -92.07 -7.9000001
-81.980003 -92.059998 -7.77
-81.440002 -92.050003 -7.6300001
-80.75 -92.040001 -7.4899998
-80.150002 -92.019997 -7.3400002
-79.410004 -92.010002 -7.1700001
-78.730003 -92 -7
-77.910004 -91.980003 -6.8000002
-76.959999 -91.959999 -6.5900002
-75.910004 -91.940002 -6.3600001
-83.519997 -91.989998 -8.2200003
-82.75 -91.980003 -7.9899998
-82.349998 -91.970001 -7.8699999
-81.760002 -91.959999 -7.75
-81.279999 -91.949997 -7.6100001
-80.529999 -91.93 -7.4699998
-79.959999 -91.919998 -7.3099999
-79.169998 -91.910004 -7.1399999
-78.529999 -91.889999 -6.96
-77.599998 -91.870003 -6.77
-76.779999 -91.860001 -6.5599999
-83.050003 -91.889999 -8.1000004
-80.239998 -91.830002 -7.4499998
-79.720001 -91.82 -7.3000002
-78.959999 -91.800003 -7.1300001
-78.260002 -91.790001 -6.9499998
-77.330002 -91.769997 -6.75
-76.400002 -91.75 -6.5300002
-83.349998 -91.800003 -8.1999998
-80.150002 -91.730003 -7.4499998
-79.589996 -91.720001 -7.29
-78.900002 -91.709999 -7.1199999
-78.120003 -91.690002 -6.9400001
-77.220001 -91.669998 -6.7399998
-76.25 -91.650002 -6.5300002
-83.580002 -91.709999 -8.3199997
-83.279999 -91.699997 -8.21
-82.870003 -91.690002 -8.1000004
-82.379997 -91.68 -7.9899998
-81.849998 -91.669998 -7.8699999
-81.389999 -91.660004 -7.7399998
-80.599998 -91.639999 -7.6100001
-80.120003 -91.629997 -7.46
-79.459999 -91.620003 -7.3000002
-78.769997 -91.599998 -7.1300001
-77.980003 -91.589996 -6.9499998
-77.029999 -91.559998 -6.75
-76.059998 -91.540001 -6.5300002
-83.559998 -91.610001 -8.3100004
-83.25 -91.610001 -8.1999998
-82.779999 -91.599998 -8.0900002
-82.370003 -91.589996 -7.98
-81.860001 -91.580002 -7.8600001
-81.379997 -91.57 -7.73
-80.709999 -91.550003 -7.5900002
-80.110001 -91.540001 -7.4499998
-79.43 -91.519997 -7.29
-78.779999 -91.510002 -7.1300001
-77.980003 -91.489998 -6.9400001
-77.059998 -91.470001 -6.75
-75.989998 -91.440002 -6.5300002
-83.739998 -91.519997 -8.4300003
-83.540001 -91.510002 -8.3199997
-83.18 -91.510002 -8.2200003
-82.760002 -91.5 -8.1099997
-82.260002 -91.480003 -8
-81.800003 -91.470001 -7.8800001
-81.279999 -91.459999 -7.75
-80.690002 -91.449997 -7.6199999
-80.040001 -91.43 -7.48
-79.419998 -91.419998 -7.3200002
-78.709999 -91.400002 -7.1599998
-77.919998 -91.379997 -6.98
-77.029999 -91.360001 -6.7800002
-75.949997 -91.339996 -6.5700002
-83.779999 -91.419998 -8.4200001
-83.529999 -91.410004 -8.3100004
-83.139999 -91.400002 -8.21
-82.699997 -91.389999 -8.1099997
-82.25 -91.379997 -8
-81.739998 -91.370003 -7.8800001
-81.260002 -91.360001 -7.75
-80.629997 -91.339996 -7.6199999
-80.050003 -91.330002 -7.4699998
-79.339996 -91.309998 -7.3200002
-78.720001 -91.300003 -7.1599998
-77.870003 -91.279999 -6.98
-76.970001 -91.25 -6.7800002
-75.93 -91.230003 -6.5700002
-83.839996 -91.309998 -8.4300003
-83.510002 -91.309998 -8.3400002
-83.160004 -91.300003 -8.2299995
-82.709999 -91.290001 -8.1300001
-82.269997 -91.279999 -8.0200005
-81.75 -91.260002 -7.9000001
-81.309998 -91.25 -7.7800002
-80.669998 -91.239998 -7.6500001
-80.110001 -91.220001 -7.5100002
-79.370003 -91.199997 -7.3600001
-78.790001 -91.190002 -7.1900001
-77.940002 -91.169998 -7.02
-77.080002 -91.150002 -6.8299999
-76 -91.120003 -6.6199999
-83.889999 -91.209999 -8.4300003
-83.529999 -91.199997 -8.3299999
-83.169998 -91.190002 -8.2299995
-82.720001 -91.18 -8.1300001
-82.279999 -91.169998 -8.0200005
-81.790001 -91.150002 -7.9099998
-81.32 -91.139999 -7.7800002
-80.760002 -91.129997 -7.6500001
-80.139999 -91.110001 -7.52
-79.449997 -91.089996 -7.3699999
-78.830002 -91.080002 -7.21
-78.040001 -91.059998 -7.0300002
-77.169998 -91.029999 -6.8499999
-76.129997 -91 -6.6399999
-83.889999 -91.099998 -8.4399996
-83.510002 -91.089996 -8.3500004
-83.139999 -91.080002 -8.25
-82.690002 -91.07 -8.1499996
-82.239998 -91.050003 -8.04
-81.739998 -91.040001 -7.9299998
-81.300003 -91.029999 -7.8099999
-80.720001 -91.010002 -7.6799998
-80.160004 -91 -7.54
-79.400002 -90.970001 -7.3899999
-78.839996 -90.959999 -7.23
-78.029999 -90.940002 -7.0599999
-77.18 -90.910004 -6.8800001
-76.169998 -90.879997 -6.6799998
-83.879997 -90.989998 -8.4399996
-83.519997 -90.980003 -8.3500004
-83.120003 -90.970001 -8.25
-82.690002 -90.949997 -8.1499996
-82.230003 -90.940002 -8.0500002
-81.760002 -90.93 -7.9299998
-81.309998 -90.910004 -7.8099999
-80.760002 -90.900002 -7.6900001
-80.190002 -90.879997 -7.5500002
-79.5 -90.860001 -7.4000001
-78.870003 -90.839996 -7.25
-78.110001 -90.82 -7.0799999
-77.230003 -90.790001 -6.9000001
-76.199997 -90.760002 -6.6999998
-75.379997 -90.739998 -6.48
-83.900002 -90.870003 -8.4499998
-83.489998 -90.860001 -8.3599997
-83.089996 -90.849998 -8.2700005
-82.639999 -90.830002 -8.1700001
-82.239998 -90.82 -8.0600004
-81.709999 -90.809998 -7.96
-81.300003 -90.790001 -7.8299999
-80.720001 -90.779999 -7.71
-80.209999 -90.760002 -7.5700002
-79.470001 -90.739998 -7.4299998
-78.889999 -90.720001 -7.2800002
-78.059998 -90.699997 -7.1100001
-77.269997 -90.669998 -6.9299998
-76.239998 -90.639999 -6.73
-75.529999 -90.620003 -6.52
-83.949997 -90.760002 -8.4399996
-83.5 -90.75 -8.3599997
-83.160004 -90.739998 -8.2600002
-82.660004 -90.720001 -8.1700001
-82.309998 -90.709999 -8.0600004
-81.769997 -90.690002 -7.9499998
-81.360001 -90.68 -7.8299999
-80.769997 -90.660004 -7.71
-80.330002 -90.650002 -7.5700002
-79.540001 -90.620003 -7.4299998
-79.019997 -90.599998 -7.2800002
-78.150002 -90.57 -7.1199999
-77.510002 -90.550003 -6.9400001
-76.339996 -90.510002 -6.7399998
-75.599998 -90.489998 -6.54
-83.910004 -90.650002 -8.4399996
-83.459999 -90.629997 -8.3599997
-83.080002 -90.620003 -8.2700005
-82.68 -90.599998 -8.1700001
-82.230003 -90.589996 -8.0699997
-81.800003 -90.580002 -7.96
-81.300003 -90.559998 -7.8400002
-80.809998 -90.540001 -7.71
-80.25 -90.519997 -7.5799999
-79.660004 -90.5 -7.4400001
-78.82 -90.470001 -7.29
-78.230003 -90.449997 -7.1300001
-77.43 -90.43 -6.9499998
-76.5 -90.400002 -6.7600002
-75.400002 -90.360001 -6.5500002
-82.580002 -90.489998 -8.1599998
-82.150002 -90.470001 -8.0600004
-81.709999 -90.459999 -7.9499998
-81.209999 -90.440002 -7.8299999
-80.709999 -90.419998 -7.71
-80.139999 -90.400002 -7.5799999
-79.610001 -90.379997 -7.4400001
-78.629997 -90.339996 -7.29
-78.160004 -90.330002 -7.1199999
-77.330002 -90.300003 -6.9499998
-76.300003 -90.260002 -6.7600002
-75.32 -90.230003 -6.5500002
-82.5 -90.370003 -8.1599998
-81.620003 -90.339996 -7.9499998
-80.639999 -90.300003 -7.71
-78.050003 -90.199997 -7.1199999
-77.25 -90.169998 -6.9499998
-76.290001 -90.139999 -6.7600002
-75.290001 -90.099998 -6.5500002
-82.470001 -90.260002 -8.1499996
-82.110001 -90.239998 -8.0500002
-81.620003 -90.230003 -7.9400001
-81.209999 -90.209999 -7.8200002
-80.650002 -90.190002 -7.6999998
-80.169998 -90.169998 -7.5700002
-78.169998 -90.089996 -7.1199999
-77.209999 -90.059998 -6.9499998
-76.370003 -90.019997 -6.7600002
-75.43 -89.989998 -6.5500002
-82.449997 -90.150002 -8.1400003
-81.989998 -90.129997 -8.04
-81.580002 -90.110001 -7.9299998
-81.089996 -90.089996 -7.8099999
-80.629997 -90.080002 -7.6900001
-80.059998 -90.050003 -7.5599999
-79.510002 -90.029999 -7.4200001
-78.230003 -89.980003 -7.1100001
-77.07 -89.93 -6.9400001
-76.419998 -89.910004 -6.75
-75.239998 -89.860001 -6.54
-82.309998 -90.029999 -8.1400003
-81.839996 -90.010002 -8.04
-81.419998 -90 -7.9299998
-80.910004 -89.970001 -7.8200002
-80.449997 -89.959999 -7.6900001
-79.870003 -89.93 -7.5599999
-78.370003 -89.870003 -7.2800002
-77.949997 -89.849998 -7.1100001
-76.900002 -89.809998 -6.9400001
-76.120003 -89.779999 -6.75
-74.910004 -89.720001 -6.54
-82.199997 -89.919998 -8.1300001
-81.800003 -89.900002 -8.0299997
-81.32 -89.879997 -7.9200001
-80.919998 -89.870003 -7.8000002
-80.360001 -89.839996 -7.6799998
-79.879997 -89.82 -7.5500002
-77.849998 -89.739998 -7.0999999
-76.870003 -89.690002 -6.9299998
-75.989998 -89.660004 -6.7399998
-75.080002 -89.620003 -6.5300002
-82.169998 -89.809998 -8.1300001
-81.779999 -89.800003 -8.0200005
-81.370003 -89.779999 -7.9099998
-80.879997 -89.760002 -7.8000002
-80.410004 -89.739998 -7.6700001
-79.849998 -89.709999 -7.54
-79.260002 -89.690002 -7.4099998
-78.599998 -89.660004 -7.2600002
-78.029999 -89.639999 -7.0999999
-76.870003 -89.580002 -6.9299998
-76.18 -89.550003 -6.7399998
-75.129997 -89.510002 -6.5300002
-82.07 -89.699997 -8.1199999
-81.650002 -89.68 -8.0100002
-81.230003 -89.660004 -7.9000001
-80.75 -89.639999 -7.79
-80.260002 -89.620003 -7.6700001
-79.699997 -89.599998 -7.54
-79.169998 -89.57 -7.4000001
-77.879997 -89.519997 -7.0900002
-76.699997 -89.459999 -6.9200001
-76.019997 -89.43 -6.73
-74.860001 -89.379997 -6.52
-81.949997 -89.589996 -8.1099997
-81.559998 -89.57 -8.0100002
-81.110001 -89.550003 -7.9000001
-80.68 -89.529999 -7.7800002
-80.160004 -89.510002 -7.6599998
-79.650002 -89.480003 -7.5300002
-79.059998 -89.459999 -7.3899999
-78.120003 -89.410004 -7.25
-77.82 -89.400002 -7.0900002
-76.43 -89.330002 -6.9099998
-75.830002 -89.309998 -6.7199998
-74.82 -89.260002 -6.52
-81.879997 -89.480003 -8.1000004
-81.519997 -89.459999 -7.9899998
-81.080002 -89.440002 -7.8899999
-80.639999 -89.419998 -7.77
-80.150002 -89.400002 -7.6500001
-79.620003 -89.370003 -7.52
-79.059998 -89.349998 -7.3800001
-77.82 -89.290001 -7.0700002
-76.379997 -89.220001 -6.9000001
-75.889999 -89.199997 -6.71
-74.830002 -89.150002 -6.5100002
-81.360001 -89.349998 -7.9899998
-80.489998 -89.300003 -7.7600002
-79.470001 -89.260002 -7.5100002
-77.989998 -89.18 -7.2199998
-77.639999 -89.169998 -7.0599999
-76.269997 -89.099998 -6.8899999
-75.809998 -89.080002 -6.6999998
-74.589996 -89.019997 -6.4899998
-81.699997 -89.25 -8.0799999
-81.32 -89.239998 -7.9699998
-80.889999 -89.209999 -7.8600001
-80.459999 -89.190002 -7.75
-79.93 -89.169998 -7.6300001
-79.419998 -89.139999 -7.4899998
-78.910004 -89.120003 -7.3600001
-78.150002 -89.080002 -7.21
-77.629997 -89.059998 -7.0500002
-76.199997 -88.980003 -6.8699999
-75.68 -88.959999 -6.6900001
-74.589996 -88.900002 -6.48
-81.610001 -89.139999 -8.0699997
-81.239998 -89.120003 -7.96
-80.82 -89.099998 -7.8499999
-80.330002 -89.080002 -7.7399998
-79.870003 -89.050003 -7.6100001
-79.330002 -89.029999 -7.48
-78.839996 -89 -7.3400002
-77.769997 -88.949997 -7.1999998
-77.540001 -88.940002 -7.04
-76.099998 -88.860001 -6.8600001
-75.629997 -88.839996 -6.6799998
-74.419998 -88.779999 -6.4699998
-81.150002 -89.010002 -7.9499998
-80.730003 -88.989998 -7.8400002
-80.25 -88.959999 -7.7199998
-79.769997 -88.940002 -7.5999999
-79.260002 -88.910004 -7.4699998
-78.739998 -88.889999 -7.3299999
-77.440002 -88.82 -7.02
-76.029999 -88.739998 -6.8499999
-75.529999 -88.720001 -6.6599998
-74.389999 -88.660004 -6.4499998
-81.029999 -88.889999 -7.9400001
-80.620003 -88.870003 -7.8299999
-80.129997 -88.839996 -7.71
-79.660004 -88.82 -7.5900002
-79.120003 -88.790001 -7.46
-78.639999 -88.769997 -7.3099999
-77.540001 -88.709999 -7.1700001
-77.239998 -88.690002 -7.0100002
-75.900002 -88.620003 -6.8299999
-75.360001 -88.589996 -6.6399999
-74.239998 -88.529999 -6.4299998
-80.970001 -88.779999 -7.9299998
-80.529999 -88.75 -7.8200002
-80.059998 -88.730003 -7.6999998
-79.559998 -88.699997 -7.5799999
-79.080002 -88.68 -7.4499998
-78.540001 -88.650002 -7.3099999
-77.440002 -88.580002 -7.1599998
-77.190002 -88.57 -7
-75.790001 -88.489998 -6.8200002
-75.150002 -88.459999 -6.6399999
-74.18 -88.410004 -6.4299998
-80.470001 -88.639999 -7.8099999
-79.529999 -88.589996 -7.5700002
-78.510002 -88.529999 -7.3000002
-77.059998 -88.449997 -7
-75.720001 -88.370003 -6.8200002
-75.169998 -88.339996 -6.6399999
-74.150002 -88.290001 -6.4299998
-80.349998 -88.519997 -7.8000002
-79.449997 -88.470001 -7.5599999
-78.919998 -88.440002 -7.4299998
-78.389999 -88.410004 -7.29
-76.989998 -88.330002 -6.98
-75.580002 -88.25 -6.8099999
-75.120003 -88.230003 -6.6199999
-73.989998 -88.160004 -6.4099998
-78.220001 -88.290001 -7.2800002
-77.07 -88.220001 -7.1399999
-76.800003 -88.209999 -6.9699998
-75.459999 -88.129997 -6.79
